# .PCD v0.7 - Point Cloud Data file format
VERSION 0.7
FIELDS x y z
SIZE 4 4 4
TYPE F F F
COUNT 1 1 1
WIDTH 1404
HEIGHT 1
VIEWPOINT 0 0 0 1 0 0 0
POINTS 1404
DATA ascii
-0.15661612 0.22613917 0.02526718
-0.1347425 0.22932965 0.021329343
-0.062901288 0.22527738 0.023158252
-0.032307029 0.2216045 0.026674464
0.032874823 0.22370288 0.023024166
0.049555063 0.22732168 0.025219608
0.10925555 0.22440386 0.028236512
0.11886179 0.22999501 0.022039669
0.12056756 0.22161159 0.022039071
0.13528195 0.22223276 0.023639569
0.1492545 0.22546053 0.023640225
0.15856954 0.22761202 0.023640685
0.16788456 0.22976351 0.02364115
0.17800272 0.22331758 0.024511699
0.1987958 0.2250427 0.021148786
0.20393267 0.22063994 0.020260599
0.21557289 0.22149944 0.020260748
0.22592089 0.22225881 0.02026118
0.23626724 0.22302413 0.020261221
0.24661361 0.22378993 0.020261239
0.25696141 0.22454906 0.020261675
0.26684186 0.22729813 0.021343097
0.2745437 0.2233123 0.020300347
0.28800046 0.22684491 0.0202618
0.29834738 0.22760725 0.020262042
0.30869371 0.22837245 0.020262079
0.31903997 0.22913778 0.02026212
0.32679194 0.22592521 0.024207216
0.34630442 0.22533882 0.021082941
0.46609136 0.22944282 0.026133908
0.47348726 0.22742987 0.026492447
0.48405597 0.22555864 0.026492499
0.49462524 0.22367644 0.026493028
0.50519407 0.22180021 0.026493305
0.51224005 0.22054875 0.026493514
0.52611339 0.22067225 0.024040723
0.53553379 0.22202969 0.024041189
0.5449537 0.22339451 0.024041278
0.55639482 0.22312862 0.023312084
0.5637939 0.22611392 0.024041979
0.5741244 0.22598572 0.023069533
0.5852192 0.22856486 0.02331325
0.73206532 0.22369772 0.028751081
1.8983014 0.22217798 0.021488376
1.9048499 0.22776973 0.021490026
-0.43550569 0.23486835 0.028284129
-0.40293586 0.23108953 0.024315247
-0.34202015 0.23497534 0.02103891
-0.30633652 0.23811179 0.023214987
-0.29705215 0.23504713 0.026721347
-0.25888574 0.23335072 0.02192647
-0.21703434 0.23623288 0.022224933
-0.17429471 0.23191562 0.025343407
-0.16458768 0.23316124 0.024102461
-0.1450977 0.23138022 0.025237378
-0.13606763 0.23497722 0.023283564
-0.12513083 0.23425877 0.025238238
-0.11515036 0.2357049 0.025238313
-0.10516572 0.23714077 0.025238926
-0.095183939 0.23858333 0.025239186
-0.066068731 0.23623091 0.022877706
-0.035534024 0.23181906 0.026673917
0.031074762 0.23252872 0.023024524
0.046078801 0.23679012 0.025219573
0.10581517 0.23530421 0.028235849
0.11715102 0.23837745 0.02203997
0.17555505 0.23320413 0.024221607
0.18651539 0.23406231 0.023642283
0.19622751 0.23595059 0.022395967
0.20824772 0.23908806 0.023643035
0.25477332 0.2344476 0.020277543
0.26308081 0.23843364 0.021348389
0.31763458 0.23985708 0.028151402
0.32025862 0.2326951 0.028151641
0.339733 0.23066545 0.02026239
0.34749296 0.23123801 0.020262513
0.35637644 0.23225038 0.021960733
0.36559904 0.23257601 0.020262673
0.37594572 0.23333812 0.020262919
0.38629231 0.23410058 0.020263154
0.39663887 0.23486292 0.020263381
0.40676636 0.2374754 0.023376821
0.41546255 0.23723298 0.023376919
0.42592067 0.23667413 0.023377284
0.43637836 0.23611838 0.023377452
0.44683588 0.23556447 0.02337753
0.45729399 0.23500317 0.023377981
0.46675336 0.23927981 0.025775786
0.48553145 0.23404226 0.029934216
0.58977795 0.23713368 0.027170207
0.59543484 0.2306378 0.024599381
0.60649478 0.23252642 0.023314223
0.61561269 0.23422492 0.023314599
0.62619996 0.23626357 0.023315024
0.6353178 0.23796219 0.023315392
0.64229172 0.23744059 0.024045102
0.65171111 0.2388016 0.024045391
0.72921586 0.23469791 0.028751073
1.7943695 0.23606122 0.020595616
1.9113935 0.23336995 0.021492233
-0.43854964 0.24979147 0.02828457
-0.40559387 0.24019998 0.024315292
-0.34576309 0.24518704 0.021038515
-0.30969989 0.24961719 0.0232147
-0.29919291 0.24553618 0.026721634
-0.26330787 0.24541621 0.021926004
-0.24619314 0.24432325 0.024827389
-0.236321 0.24660349 0.024827845
-0.22644877 0.24888337 0.024828315
-0.21942854 0.24442941 0.022224823
-0.17369956 0.24231577 0.024125587
-0.1642257 0.24155551 0.025296593
-0.13929963 0.24494028 0.021329276
-0.085200459 0.24002147 0.025239663
-0.07326214 0.24444857 0.02461952
-0.06695199 0.24515212 0.023291595
-0.055254132 0.24434519 0.025240647
-0.045271486 0.24578452 0.025241073
-0.037025362 0.24462721 0.025957532
-0.025307655 0.24866641 0.025241747
0.029274821 0.24135447 0.023024896
0.042607427 0.24626136 0.025219275
0.10237122 0.24620342 0.02823535
0.11487293 0.24955449 0.022040548
0.17208171 0.24158075 0.026593365
0.19445193 0.24632731 0.021149615
0.21756282 0.24123752 0.023643611
0.2268768 0.2433902 0.023643991
0.23619077 0.24554265 0.023644386
0.24550542 0.24769235 0.023644933
0.25682935 0.24781813 0.023536343
0.26675931 0.24778916 0.020308735
0.35741091 0.24118775 0.024536381
0.36480528 0.24333858 0.021082271
0.39597845 0.24119651 0.026490113
0.46665099 0.24460126 0.023019781
0.47940823 0.24097645 0.020264268
0.48423937 0.24355313 0.025099164
0.49492717 0.24212456 0.020264324
0.50527334 0.24288666 0.020264562
0.51561928 0.24365199 0.020264599
0.52596533 0.24441421 0.020264843
0.53631127 0.24517941 0.020264881
0.54665715 0.24594522 0.020264892
0.55700308 0.24670756 0.02026513
0.56734902 0.24746966 0.020265372
0.57769489 0.24823487 0.02026541
0.58757263 0.24822107 0.023717973
0.59838653 0.24976265 0.020265669
0.64657903 0.24188483 0.022586213
0.65833366 0.2446003 0.022586806
0.66570985 0.24362457 0.023316603
0.67482734 0.24532133 0.023317069
0.68310851 0.24333191 0.024046628
0.69252753 0.24468994 0.024047064
0.70194662 0.24605143 0.024047321
0.71136534 0.24740696 0.02404787
0.72405213 0.24540183 0.02639946
1.8057992 0.24583125 0.020599158
1.9244837 0.24456275 0.021496218
-0.40914738 0.25234634 0.024314873
-0.31221771 0.25824672 0.02321473
-0.30133367 0.25602511 0.026721921
-0.22182298 0.252626 0.0222247
-0.21657571 0.25116122 0.024828881
-0.20670265 0.25343907 0.024829447
-0.19683188 0.25572109 0.024829805
-0.18696129 0.25800323 0.024830155
-0.17677826 0.25289506 0.024125651
-0.14234436 0.25534678 0.021328811
-0.071669459 0.25606033 0.022877738
-0.043068945 0.25565124 0.026672905
-0.015326411 0.25010908 0.02524199
-0.0053441226 0.25154841 0.025242414
0.0046388507 0.25298536 0.025242951
0.01462099 0.25442457 0.025243381
0.025736764 0.25449508 0.024134401
0.036859751 0.25652018 0.025231486
0.044564575 0.25874949 0.025244294
0.10007119 0.25346813 0.028235171
0.16839242 0.25164783 0.026593048
0.19227862 0.25696918 0.021149935
0.25584424 0.25736818 0.023427265
0.26389781 0.25531176 0.021993326
0.27588275 0.25460303 0.021961749
0.28586671 0.25701106 0.0236471
0.29517826 0.25917113 0.023647089
0.31369483 0.25059837 0.028151227
0.35385287 0.25493723 0.024536209
0.46172476 0.25868928 0.025775824
0.47708786 0.25707138 0.029933754
0.58443582 0.25775793 0.027170192
0.60873228 0.25052798 0.020265706
0.6164915 0.25109434 0.020266231
0.62425089 0.25167286 0.020265967
0.63459653 0.25243521 0.020266186
0.64494228 0.25320053 0.020266231
0.65528798 0.25396597 0.020266252
0.66563368 0.2547313 0.020266281
0.67597926 0.25549364 0.020266524
0.68702209 0.25382 0.021427635
0.69660246 0.25521928 0.021427982
0.7061832 0.25662339 0.021428037
0.7172327 0.25836045 0.021428559
0.72608918 0.25617236 0.024509083
0.73334265 0.25058174 0.024048567
0.74276125 0.25193942 0.024049003
0.75217998 0.25330079 0.02404926
0.76159871 0.25466132 0.024049554
0.77101701 0.25602007 0.024049934
0.7835753 0.2578373 0.024050185
0.79299355 0.25919533 0.024050599
1.8151494 0.25382638 0.020602178
1.9353914 0.25388932 0.021499531
1.9419382 0.2594806 0.021501226
-0.44158995 0.26471484 0.02828517
-0.41180348 0.26145697 0.024315011
-0.31474113 0.26687577 0.023214465
-0.30346668 0.26651487 0.026722535
-0.26871598 0.26016089 0.021925667
-0.22501516 0.26355472 0.02222454
-0.18033087 0.26152313 0.025344588
-0.17771463 0.26144373 0.023868894
-0.16721714 0.26256096 0.02483117
-0.15734571 0.26484084 0.024831636
-0.14642818 0.26643741 0.023080446
-0.13760325 0.2694006 0.024832549
-0.074358858 0.26545882 0.02287784
-0.047377467 0.26926866 0.026672466
0.025073886 0.26194748 0.023025701
0.035664558 0.26520392 0.02521869
0.054547071 0.26018631 0.025244826
0.064528793 0.26162553 0.025245247
0.07450965 0.26306713 0.025245555
0.084489137 0.26451349 0.025245622
0.096123159 0.26334295 0.026740463
0.10445252 0.26738966 0.025246568
0.112633 0.26622391 0.023109576
0.16347051 0.26506907 0.026592784
0.19065297 0.26495132 0.021150457
0.25358927 0.26604736 0.023427622
0.26159143 0.26878676 0.020341305
0.2826485 0.2615732 0.020276722
0.29008085 0.26880836 0.020276625
0.30712688 0.26372224 0.026649736
0.31380543 0.26347363 0.023647994
0.32311928 0.26562297 0.023648545
0.33243278 0.26777363 0.023649033
0.35029256 0.26868576 0.024536157
0.45921445 0.26839599 0.025775636
0.47286952 0.26858759 0.029933395
0.58176649 0.26807088 0.027170103
0.72377372 0.26212221 0.025670556
0.73639339 0.26116037 0.021429136
0.74744278 0.26289904 0.021429546
0.75572991 0.26420718 0.021429632
0.76398325 0.26433542 0.021042531
0.77426064 0.26274633 0.020268014
0.78460652 0.2635144 0.020267857
0.79495203 0.26428008 0.02026788
0.80385435 0.26279771 0.022159567
0.81373584 0.26385826 0.02215988
0.82361752 0.26491952 0.022160124
0.83349931 0.26598322 0.022160277
0.84338105 0.26704478 0.022160487
0.85483187 0.26833153 0.022160888
0.86471337 0.26939315 0.022161117
1.823462 0.26092911 0.020604633
1.8317763 0.26802731 0.020606786
1.9506623 0.26694322 0.02150402
-0.44463003 0.27963802 0.02828577
-0.41579539 0.27512228 0.024314824
-0.3180989 0.27838176 0.023214474
-0.3056109 0.27700326 0.026722675
-0.27412194 0.27490723 0.021925164
-0.22821128 0.27448332 0.022224164
-0.18189371 0.2712332 0.024125848
-0.14842141 0.2761611 0.021328675
-0.12773216 0.27168059 0.024832996
-0.11786214 0.2739625 0.024833344
-0.10799032 0.27624047 0.024833899
-0.098119587 0.27852023 0.024834357
-0.082233548 0.27724445 0.023997974
-0.075008571 0.27515209 0.022317808
-0.050601482 0.27948499 0.026671762
0.023276091 0.27077329 0.023026183
0.032196403 0.27467716 0.025218217
0.050983004 0.27991116 0.021065699
0.094334364 0.27163503 0.028234195
0.10916865 0.277495 0.022041446
0.12441429 0.27027047 0.025247291
0.13439503 0.27171087 0.025247637
0.14437571 0.27315128 0.025248
0.15645349 0.27654025 0.025920453
0.16433799 0.27602732 0.025248947
0.174317 0.27747369 0.025249006
0.18666254 0.27592307 0.023200195
0.1909517 0.27987099 0.025249774
0.25543159 0.27683771 0.021884549
0.29751623 0.27603889 0.020276185
0.30319512 0.27924478 0.028150495
0.34485051 0.27064121 0.023649668
0.35416332 0.27279413 0.023650022
0.36347705 0.27494156 0.023650667
0.37278962 0.27709496 0.023651006
0.38210279 0.27924418 0.023651564
0.45670271 0.27810204 0.025775524
0.47005582 0.27626449 0.029933201
0.57909882 0.27838466 0.027169932
0.71972537 0.27136874 0.028750744
0.77587116 0.27175057 0.022592844
0.78468609 0.27379072 0.022593081
0.79056251 0.27514839 0.022593364
0.87771291 0.27038741 0.020269122
0.88805819 0.27115273 0.020269163
0.8958174 0.27172852 0.020269079
0.96096587 0.27931213 0.028059196
0.97599965 0.27663743 0.028059795
0.98727494 0.27463162 0.028060228
1.8400865 0.27513194 0.02060942
1.9593868 0.27440369 0.021506686
1.9659293 0.27999997 0.021508768
-0.41978717 0.28878766 0.024314638
-0.32062066 0.28701097 0.023214299
-0.30703533 0.28399602 0.026722988
-0.27855027 0.28696868 0.021925127
-0.23060584 0.28267992 0.022224041
-0.18497229 0.28181234 0.024125926
-0.15146267 0.28656802 0.021328429
-0.08514186 0.28310177 0.024555871
-0.075297259 0.28388959 0.023157159
-0.061926425 0.28687704 0.024836142
-0.052945048 0.28942618 0.025754102
0.024794161 0.28334218 0.02412232
0.061825454 0.28071117 0.021065859
0.072668351 0.28151 0.021066101
0.086050324 0.28605461 0.024649899
0.092621133 0.28282285 0.024650026
0.10468423 0.28619361 0.021553934
0.11061542 0.28431332 0.021066453
0.12145726 0.28511477 0.021066524
0.13230035 0.28591216 0.021066852
0.14314249 0.28671217 0.021067018
0.15442455 0.28803873 0.023829391
0.16482526 0.28831756 0.021066999
0.17295693 0.28891742 0.021067141
0.18396977 0.28654569 0.021109181
0.20093217 0.28131008 0.025250193
0.21091205 0.28275156 0.025250483
0.22089162 0.28419435 0.025250718
0.23087206 0.28563237 0.025251191
0.2449743 0.2852428 0.024339484
0.25413859 0.28880388 0.022797078
0.26081219 0.28995013 0.025252413
0.29925513 0.28998607 0.028150313
0.30495036 0.28327143 0.020275874
0.34712994 0.28090775 0.024535986
0.39141569 0.28139424 0.023652071
0.40072855 0.2835443 0.023652565
0.41314474 0.28641546 0.023653015
0.42245647 0.288571 0.023653228
0.45418966 0.28780743 0.025775468
0.46724188 0.28394133 0.029933022
0.57731605 0.28525835 0.027170036
0.71687579 0.28236899 0.028750744
0.90082568 0.28999019 0.028057689
0.91586113 0.28732187 0.028058017
0.93089646 0.28465378 0.02805833
0.9459312 0.28198272 0.028058773
1.8483964 0.28223622 0.020612042
1.8546288 0.28756368 0.020613972
1.9724722 0.2855947 0.021510776
-0.44767505 0.29456055 0.028286163
-0.32314062 0.29564038 0.023214232
-0.30916882 0.29448545 0.026723599
-0.28149509 0.29501516 0.021924572
-0.23299825 0.29087681 0.022224018
-0.19179392 0.29930317 0.022906063
-0.18753088 0.29098168 0.0241259
-0.15373576 0.29437387 0.021328742
-0.084522605 0.29385632 0.022256147
-0.077919126 0.29125354 0.024121281
-0.042186052 0.29143667 0.024837038
-0.032315969 0.29371667 0.024837485
-0.022445917 0.29599631 0.024837932
-0.012575269 0.29827416 0.024838479
0.019070745 0.29136515 0.023026731
0.025249839 0.29361793 0.025217835
0.10461175 0.29984799 0.02204255
0.15117109 0.29862565 0.026591828
0.18467617 0.29421586 0.021151317
0.1919314 0.2903142 0.021067606
0.20277238 0.2911185 0.021067504
0.21361464 0.29191709 0.02106775
0.22445597 0.29271996 0.021067735
0.23258623 0.29332495 0.021067537
0.24071969 0.29391658 0.021068193
0.25346714 0.29698813 0.020705335
0.26240242 0.29552054 0.021068253
0.27201772 0.2938574 0.023160499
0.28242832 0.29497772 0.023160728
0.29319999 0.29637918 0.024824133
0.30053937 0.29701656 0.023161285
0.31352589 0.29612857 0.021718465
0.3213599 0.29925972 0.023161639
0.34356886 0.29465574 0.024535988
0.43176937 0.29071879 0.023653846
0.44108149 0.29287076 0.023654249
0.45392546 0.29656878 0.024361776
0.46672267 0.2954714 0.026794203
0.57464743 0.29557183 0.027169894
0.71403039 0.29337108 0.028750565
0.85196102 0.29867303 0.028056178
0.86323804 0.29667222 0.028056409
0.8745141 0.29466522 0.028056893
0.88579082 0.29266387 0.028057136
1.8650163 0.29644066 0.020617088
1.9811996 0.29304743 0.021512993
-0.44995439 0.30575272 0.028286643
-0.42333162 0.30093491 0.02431469
-0.32650602 0.30714592 0.023213826
-0.31131208 0.30497372 0.026723748
-0.2361871 0.30180591 0.022224072
-0.19490218 0.30776983 0.022906022
-0.1883831 0.30099815 0.025345949
-0.15602016 0.30217886 0.021328343
-0.092071295 0.30406865 0.023997378
-0.083155394 0.30251813 0.020514512
-0.079816222 0.30057183 0.02412181
-0.0027038455 0.30054986 0.024839139
0.0071657598 0.30282962 0.02483958
0.017154261 0.30265006 0.023933629
0.024337247 0.30523676 0.025029238
0.036774009 0.30966914 0.024840899
0.085150003 0.30070084 0.028232841
0.10289812 0.30822957 0.022042673
0.1474762 0.30868995 0.026591798
0.18250871 0.30485824 0.02115199
0.25329959 0.30941162 0.020342896
0.293998 0.30430597 0.028150268
0.32725394 0.30496812 0.020274894
0.33177072 0.30037749 0.023162024
0.3414562 0.30379924 0.023620212
0.35414931 0.30258986 0.022464683
0.36060488 0.30435586 0.025255807
0.37070084 0.30466223 0.023162782
0.38111126 0.30578035 0.023163147
0.39152157 0.30689847 0.02316347
0.40334287 0.30592346 0.021070143
0.41418368 0.30672824 0.021070002
0.42231476 0.30732751 0.021070166
0.43044612 0.30792439 0.021070486
0.44522554 0.30797377 0.023422843
0.45212814 0.30953026 0.021070432
0.46020591 0.30313295 0.029932627
0.4814336 0.30219245 0.023656154
0.49074557 0.30434191 0.023656687
0.50471306 0.30756873 0.023657335
0.57197905 0.30588526 0.027169773
0.71212792 0.30070332 0.028750692
0.79181743 0.30935645 0.028054478
0.80309451 0.30735338 0.028054798
0.81437147 0.30534935 0.028055148
0.82188952 0.30401516 0.028055312
0.83316666 0.30201364 0.028055564
0.84444368 0.30001223 0.028055813
1.8774805 0.30709267 0.020620843
1.9899222 0.30050695 0.021515701
1.9964629 0.30610263 0.021517813
-0.45223188 0.31694502 0.028287202
-0.42732549 0.31460026 0.0243144
-0.32902396 0.31577554 0.023213852
-0.31344497 0.31546298 0.026724393
-0.23937964 0.31273484 0.022223894
-0.19420028 0.31355289 0.024126099
-0.15905595 0.31258622 0.02132844
-0.095352292 0.31300899 0.023997279
-0.084205568 0.3127231 0.02231819
0.016584516 0.31225619 0.024122758
0.046643227 0.3119489 0.024841342
0.056512326 0.31422853 0.024841778
0.06638211 0.31650627 0.024842326
0.077827379 0.3188242 0.026537588
0.081703424 0.31159973 0.028232457
0.10118794 0.31661153 0.022043001
0.14502084 0.31540397 0.026591374
0.180336 0.31549975 0.02115234
0.25122917 0.31956801 0.02034346
0.29006326 0.31505015 0.028149858
0.33763826 0.31757182 0.024535701
0.40051979 0.31011856 0.025257139
0.41049951 0.31154943 0.025257939
0.42047688 0.31299949 0.025257809
0.43045625 0.31443048 0.025258603
0.44354358 0.31640142 0.025516901
0.45319796 0.31597984 0.027595831
0.46168029 0.31453925 0.023165226
0.47381058 0.31113005 0.021070749
0.48194125 0.31173277 0.021070704
0.49007261 0.31232619 0.021071237
0.50091356 0.31312788 0.021071289
0.51521742 0.31236362 0.022364588
0.52529395 0.31383628 0.022365041
0.53536999 0.31531203 0.022365339
0.54699463 0.31694195 0.021934325
0.56492275 0.31686342 0.024120914
0.5713799 0.31833136 0.021072077
0.58222079 0.3191328 0.021072146
0.59306163 0.31993151 0.021072391
0.70928299 0.31170565 0.02875049
0.73543048 0.3193711 0.028052941
0.74670839 0.3173728 0.02805306
0.75422645 0.31603396 0.02805341
0.76174474 0.31469953 0.028053574
0.77302223 0.31269789 0.028053837
0.78429925 0.31069183 0.028054276
1.8857894 0.31419313 0.020623328
1.8920211 0.31951821 0.020625183
-0.45451617 0.3281365 0.028287478
-0.43132353 0.32826543 0.024313917
-0.33154571 0.32440495 0.023213673
-0.31558836 0.32595107 0.026724562
-0.24297053 0.32502997 0.022223759
-0.20215237 0.32752723 0.022905769
-0.19241214 0.32073498 0.025346482
-0.16209567 0.32299346 0.0213283
-0.098636627 0.32194716 0.023997391
-0.086604953 0.32234848 0.022318399
0.013053496 0.32413831 0.023757884
0.075962782 0.32976645 0.028231611
0.086121351 0.32106137 0.024843415
0.097447872 0.32556415 0.02344358
0.10585791 0.32562304 0.024844175
0.11572707 0.32790077 0.024844708
0.14133084 0.32547122 0.026591076
0.1787039 0.32348052 0.02115244
0.24915528 0.32972386 0.020343792
0.2861284 0.32579431 0.028149454
0.33526111 0.32673541 0.024535879
0.44414222 0.32663167 0.025775034
0.45317125 0.32232544 0.029932156
0.47036892 0.32019353 0.025259901
0.48034674 0.32163668 0.025260102
0.49032483 0.32307446 0.025260564
0.50030255 0.32451785 0.025260765
0.51028055 0.32595479 0.025261274
0.52025855 0.32738948 0.025261885
0.53023589 0.32883632 0.025261907
0.55902958 0.32011223 0.023660116
0.56748849 0.32438791 0.02541507
0.57765126 0.32441843 0.023660757
0.58696187 0.32657194 0.023661075
0.59627295 0.32871878 0.023661712
0.60525751 0.32083225 0.021072514
0.62016356 0.3219322 0.021072734
0.63100433 0.32273388 0.021072783
0.64184505 0.32353532 0.021072844
0.6526857 0.32433343 0.021073112
0.66352636 0.32513523 0.021073164
0.67572218 0.3260377 0.021073181
0.68656051 0.32805669 0.02805136
0.69235349 0.32692689 0.024562612
0.70442086 0.32512131 0.025958566
0.71447194 0.32572693 0.024562914
0.72365123 0.32545757 0.024563218
1.5640559 0.32712054 0.029956568
1.8982514 0.3248446 0.020627139
-0.45603657 0.33559769 0.028287761
-0.43397987 0.33737612 0.024314044
-0.33490574 0.33591092 0.023213569
-0.31701601 0.33294326 0.026724719
-0.20525932 0.33599496 0.02290564
-0.19442034 0.33060387 0.025347052
-0.16357194 0.33458674 0.020821784
-0.15193498 0.33825052 0.020315662
-0.10191119 0.33089182 0.023996903
-0.091860294 0.33231676 0.020513998
-0.086150408 0.33163089 0.024123037
0.01135242 0.33149755 0.025217276
0.096628666 0.33896339 0.022043951
0.12559548 0.33018053 0.024845149
0.13655229 0.3339994 0.025718186
0.14533269 0.33473778 0.024846114
0.15520141 0.33701539 0.024846654
0.1650703 0.33929193 0.024847239
0.17708242 0.3314625 0.021153215
0.24708164 0.33987957 0.020344134
0.28350067 0.33295479 0.028149379
0.33368242 0.33284798 0.024535649
0.44162726 0.33633614 0.02577509
0.45035517 0.33000141 0.029932074
0.54021382 0.33026767 0.025262671
0.55019087 0.33171809 0.025262533
0.56206852 0.33498606 0.026216468
0.57014585 0.33459353 0.025263466
0.58012313 0.33603048 0.025263958
0.59342599 0.33795083 0.025264408
0.60615629 0.33536869 0.024463594
0.617998 0.33373308 0.02366296
0.62685949 0.33731192 0.025856573
0.63527405 0.33772153 0.025856797
0.64520764 0.33540332 0.028050162
0.6564858 0.3333993 0.028050503
0.66400456 0.33206558 0.028050637
0.6752826 0.33006108 0.028051002
0.70453823 0.33004162 0.028750295
0.73534513 0.33044004 0.021073893
0.75025076 0.33154118 0.021074034
0.76109099 0.33233964 0.02107428
0.77193111 0.33313799 0.021074528
0.78277171 0.33393955 0.021074584
0.79496694 0.33484024 0.021074716
0.80987227 0.33594012 0.021074934
0.82071263 0.33674181 0.02107499
0.83155251 0.33754027 0.021075234
0.84239286 0.33834171 0.021075293
0.85458839 0.33924425 0.02107531
1.5225335 0.33792663 0.029851615
1.5346178 0.33578026 0.029851917
1.5467019 0.3336339 0.029852236
1.5547569 0.33219981 0.029852556
1.5757799 0.3385179 0.029956069
1.9065599 0.33194304 0.020629544
1.9148669 0.33904326 0.020632088
-0.45831895 0.34678921 0.028288119
-0.43664396 0.34648639 0.024313783
-0.33742392 0.34454051 0.023213593
-0.31914854 0.34343225 0.026725367
-0.24735963 0.34005743 0.022223566
-0.22891569 0.34041262 0.02660965
-0.2147682 0.34245586 0.026610052
-0.20449002 0.34448287 0.024757788
-0.19321977 0.34325099 0.025979202
-0.17939791 0.34755945 0.026611276
-0.16848217 0.34644723 0.023969796
-0.14186317 0.34072101 0.020316068
-0.13179624 0.34320056 0.020315833
-0.12172607 0.3456738 0.020316027
-0.11165699 0.3481493 0.020316079
-0.10628355 0.34281409 0.023996616
-0.094762564 0.34224963 0.020513777
-0.088048697 0.34094864 0.024123495
0.0083749294 0.34117115 0.02412295
0.071365237 0.34429789 0.028231163
0.094913602 0.34734467 0.022044001
0.13517523 0.34224677 0.026590895
0.17492281 0.34183925 0.023000488
0.18151662 0.34309196 0.024847936
0.19138429 0.34537148 0.024848368
0.20125192 0.34765112 0.024848787
0.21112001 0.34992874 0.02484932
0.27956414 0.34369817 0.028149063
0.43911493 0.34604195 0.025775004
0.44613731 0.34151846 0.029931668
0.56377769 0.34828013 0.027608806
0.57753682 0.34742391 0.028048228
0.58881545 0.3454231 0.028048452
0.59633452 0.34408879 0.028048601
0.60385358 0.34274948 0.028048974
0.61591887 0.34103078 0.026657138
0.62668264 0.34274673 0.025265768
0.6366595 0.34419084 0.025265926
0.64628255 0.34290904 0.024465237
0.65592593 0.34469724 0.024465974
0.66556948 0.34649569 0.02446622
0.67521256 0.34829003 0.02446666
0.68627262 0.34950674 0.02366611
0.70168936 0.34104228 0.028750265
0.86949319 0.3403424 0.021075632
0.88033342 0.34114385 0.021075696
0.89117372 0.34194553 0.02107574
0.90201336 0.34274375 0.021075999
0.91014373 0.34334624 0.021075977
1.4580851 0.34938121 0.029849699
1.4701679 0.34722972 0.029850211
1.4822525 0.345083 0.02985052
1.4943372 0.34293699 0.029850818
1.5104489 0.34007311 0.029851306
1.5845728 0.34706616 0.029955704
1.9231731 0.34614384 0.020634688
-0.46059728 0.35798097 0.028288625
-0.43930042 0.3555969 0.024313906
-0.3399477 0.35316986 0.023213303
-0.32128429 0.35392082 0.026725858
-0.30333346 0.35525763 0.026183335
-0.2928372 0.35768116 0.026183812
-0.25175065 0.35508481 0.022223268
-0.19844353 0.35034069 0.025347874
-0.17122042 0.35421482 0.021327525
-0.16171247 0.35010934 0.026611969
-0.15110081 0.35163796 0.026612442
-0.14049026 0.35316932 0.026612796
-0.13341632 0.35418928 0.026613079
-0.12280586 0.3557204 0.026613439
-0.11219636 0.35725355 0.026613692
-0.104243 0.35372201 0.023642145
-0.093678616 0.35495535 0.02165129
-0.085700035 0.35292029 0.02222004
-0.071380883 0.35805106 0.020316286
0.0044208467 0.35489383 0.024122925
0.024998479 0.35564774 0.021953566
0.03780888 0.35659385 0.021953696
0.046348579 0.35722613 0.021953678
0.057735234 0.35806823 0.021953726
0.069121867 0.35891032 0.021953784
0.077664182 0.35953474 0.02195425
0.09320569 0.3557266 0.022044452
0.13148522 0.35231403 0.026590608
0.17273438 0.35274467 0.021153741
0.22098863 0.35220408 0.024849964
0.23085582 0.35448384 0.024850378
0.24306184 0.35481691 0.021846721
0.25059018 0.35904312 0.024851233
0.27562046 0.3544378 0.028149059
0.4366039 0.35574856 0.025774851
0.44191563 0.35303387 0.029931426
0.5173825 0.35810828 0.028046567
0.52866161 0.35610723 0.028046789
0.53618085 0.35477316 0.02804693
0.54745996 0.35276651 0.028047381
0.55912876 0.35238558 0.027608674
0.68654239 0.35139096 0.025267662
0.69697195 0.35397461 0.026608847
0.70569348 0.35403645 0.024467817
0.71533644 0.35583228 0.024468187
0.72497916 0.35762614 0.024468653
0.73642302 0.35858428 0.025269706
1.4057171 0.35868418 0.029848311
1.4218299 0.35582042 0.029848794
1.4339149 0.35367346 0.02984911
1.4419724 0.35224462 0.029849237
1.4500277 0.35081005 0.029849572
1.5933583 0.35561889 0.029955648
1.9345961 0.35590184 0.020637937
-0.4621172 0.36544204 0.028288918
-0.44285071 0.36774409 0.024313647
-0.34330225 0.36467609 0.0232135
-0.32342362 0.364409 0.026726194
-0.28233987 0.36010242 0.026184393
-0.27184266 0.36252356 0.026184982
-0.26484725 0.36414278 0.026185133
-0.25484723 0.36697268 0.024204332
-0.24385452 0.36898732 0.026186191
-0.20045853 0.36020875 0.025348116
-0.17463696 0.3659232 0.021327564
-0.11447936 0.36516994 0.023995977
-0.10056162 0.36211586 0.02051371
-0.092362404 0.36460596 0.025369581
-0.083901435 0.36133361 0.026614795
-0.073290527 0.36286235 0.026615256
-0.061995313 0.36245793 0.023466118
-0.051655933 0.36446112 0.023466311
-0.042574346 0.36615258 0.023466624
-0.035262495 0.36759269 0.023466688
-0.026068151 0.36918545 0.020316873
-0.0025362968 0.36938342 0.025216224
0.086204208 0.36016595 0.021954309
0.094259061 0.36395508 0.02199968
0.10897815 0.36184728 0.02195457
0.11751655 0.36248374 0.021954309
0.12692648 0.36274612 0.024272466
0.13744423 0.36395288 0.021954661
0.14883225 0.36478937 0.021955037
0.15737185 0.36542201 0.021955019
0.16591209 0.36605179 0.021955157
0.17393318 0.36513951 0.021554874
0.18868493 0.36773574 0.021955257
0.19722649 0.36836028 0.021955721
0.20576566 0.36899424 0.021955617
0.21715234 0.36983466 0.021955751
0.24190116 0.36526895 0.020345245
0.26045716 0.36132288 0.02485165
0.27166164 0.36260217 0.026500378
0.28019145 0.36588001 0.024852596
0.29005834 0.36815858 0.024853062
0.43649206 0.36485037 0.028545767
0.46474567 0.36745846 0.028045062
0.47602504 0.36545742 0.028045282
0.48730445 0.36345327 0.028045628
0.498584 0.36144328 0.028046198
0.50610322 0.36011469 0.028046139
0.556849 0.3643243 0.027169429
0.69504642 0.36671257 0.028750012
0.73282087 0.36026096 0.023668258
0.7442646 0.36121786 0.024469376
0.75545859 0.36336893 0.024469972
0.76510119 0.36516476 0.024470333
0.7747435 0.36695844 0.024470806
0.78630167 0.36577868 0.025271678
0.79627752 0.36722302 0.025271824
0.80625278 0.36866009 0.025272304
1.3855743 0.36226034 0.029847864
1.3936318 0.36083078 0.029848006
1.6050798 0.3670181 0.02995526
1.9439402 0.36388731 0.020640749
-0.46439922 0.37663329 0.028289286
-0.4455092 0.37685466 0.024313673
-0.34582424 0.37330559 0.023213318
-0.32556307 0.37489709 0.026726544
-0.25853264 0.37830928 0.022223042
-0.23335898 0.37141097 0.026186667
-0.22286361 0.37383449 0.026187137
-0.2158663 0.37544942 0.026187494
-0.20410757 0.37596461 0.025628477
-0.11939919 0.37858212 0.02399572
-0.10346413 0.37204885 0.020513486
-0.02377817 0.3700068 0.026616953
-0.014584154 0.37159985 0.023467077
-0.0048332512 0.37535295 0.024050221
0.0040325448 0.37540278 0.023248872
0.014665902 0.37735182 0.023467772
0.025733054 0.37714887 0.026618743
0.036342174 0.37867975 0.026619097
0.088649154 0.37807792 0.022045547
0.12410498 0.3724488 0.026590053
0.16839385 0.37402734 0.021154737
0.22853898 0.37067544 0.021955885
0.23845306 0.37336701 0.021150695
0.24561855 0.37193787 0.021956
0.25700539 0.3727771 0.021956205
0.26872548 0.37298059 0.025052436
0.27693188 0.37424755 0.021956483
0.28547135 0.37488019 0.021956464
0.29839161 0.37307835 0.023405105
0.30901834 0.3746376 0.023405403
0.31822205 0.37608916 0.023405856
0.32742435 0.37754816 0.023405906
0.33805075 0.37910765 0.023406219
0.34809643 0.37950361 0.021957181
0.40458697 0.37814522 0.028043332
0.41962677 0.37547481 0.028043712
0.4335953 0.37420726 0.027948529
0.44970626 0.37012911 0.028044662
0.5541774 0.37463617 0.027169451
0.69219577 0.37771225 0.028750064
0.78246975 0.37172461 0.023670889
0.79177856 0.37387145 0.023671504
0.81622851 0.37010372 0.025272472
0.82620311 0.37153566 0.025273193
0.83617878 0.37297952 0.025273353
0.84615374 0.37441671 0.025273815
0.85612857 0.37585461 0.025274254
0.86610389 0.37729776 0.025274448
0.87607789 0.37872958 0.025275163
1.9522448 0.37098634 0.020643324
1.9605508 0.37808239 0.020645732
-0.46668088 0.38782448 0.028289663
-0.4481715 0.38596505 0.024313498
-0.34834814 0.38193503 0.023213027
-0.32770014 0.38538525 0.026726976
-0.26172769 0.38923848 0.022222741
-0.2064954 0.38981295 0.025349222
-0.19487488 0.3802942 0.026188554
-0.18438035 0.38271856 0.026188968
-0.17635153 0.38268709 0.023758382
-0.16688809 0.3867557 0.026189843
-0.15639338 0.38917935 0.026190313
-0.12267566 0.38752592 0.023995347
-0.10636079 0.38198212 0.020513628
-0.096284747 0.38132372 0.024124991
-0.0051087737 0.38838184 0.024123166
0.024276316 0.38156259 0.020317119
0.03434515 0.38403809 0.020317165
0.045683175 0.38336068 0.023468437
0.056023091 0.3853603 0.023468796
0.064632863 0.38276196 0.026620068
0.075242579 0.3842895 0.026620582
0.086392954 0.38613924 0.024333302
0.096460432 0.38734937 0.026621383
0.10706919 0.3888793 0.026621781
0.11604714 0.3895615 0.026605941
0.1204145 0.38251609 0.026589777
0.16622031 0.38466817 0.021155028
0.23775637 0.38558 0.0203461
0.26512551 0.38308883 0.028148066
0.34925818 0.38182867 0.024855928
0.35788029 0.38212049 0.023406841
0.36708313 0.38357532 0.023407117
0.37789536 0.38436174 0.024952555
0.38874745 0.38163275 0.025000215
0.39648753 0.38307893 0.021957589
0.4050276 0.3837055 0.021957917
0.41641369 0.3845464 0.021958029
0.42879319 0.38567334 0.025859663
0.43633974 0.38601351 0.021958491
0.4448787 0.38664937 0.02195828
0.4562647 0.38748991 0.021958411
0.46765095 0.3883276 0.021958727
0.47619021 0.38896024 0.021958694
0.48472965 0.38959026 0.021958809
0.55151033 0.38495061 0.027169246
0.68934846 0.38871384 0.028749958
1.9688522 0.38518429 0.020648574
-0.46819711 0.39528555 0.028290102
-0.45083368 0.39507556 0.024313331
-0.35171425 0.39344108 0.0232126
-0.32983732 0.3958734 0.02672741
-0.26411474 0.3974354 0.022223039
-0.20850635 0.39968109 0.025349662
-0.19796628 0.39933145 0.021123694
-0.18299371 0.39454347 0.021327322
-0.14589879 0.39160275 0.026190782
-0.13540387 0.39402485 0.026191309
-0.12543313 0.3964566 0.025093555
-0.11467911 0.39871243 0.023352552
-0.10467738 0.39593649 0.022319369
-0.098189712 0.39064068 0.024125114
-0.012953401 0.39779806 0.025215453
0.064552486 0.39146221 0.020317452
0.074621677 0.39393651 0.020317571
0.084958971 0.39562535 0.021181926
0.092242748 0.39826655 0.020317804
0.11426139 0.39929372 0.026589448
0.12474969 0.39143145 0.026622342
0.13535827 0.39296138 0.026622752
0.14596608 0.39449382 0.026623031
0.15657502 0.39602113 0.026623556
0.16412415 0.3948454 0.023889873
0.17425507 0.39857233 0.026624152
0.23568332 0.39573538 0.020346479
0.26249385 0.39024734 0.028148163
0.38872275 0.39094102 0.024857879
0.39858839 0.39322054 0.024858285
0.40845454 0.39549625 0.024858885
0.41831967 0.39777756 0.024859209
0.42503357 0.3990984 0.029930254
0.4961156 0.39043105 0.021958932
0.50750142 0.39127147 0.021959074
0.51604086 0.39190114 0.021959217
0.52458024 0.39253092 0.021959351
0.53596598 0.39337158 0.021959478
0.54809487 0.39473557 0.024564549
0.55589092 0.39484799 0.021959396
0.56443036 0.39547169 0.021959892
0.57581598 0.39631236 0.021960016
0.5872016 0.39715314 0.021960143
0.5957408 0.397789 0.021959919
0.60427999 0.39841282 0.021960407
0.61566544 0.39925325 0.021960549
0.6874541 0.39605013 0.028749727
1.9771568 0.39228022 0.020651015
1.9833864 0.39759982 0.020652695
-0.47048032 0.4064765 0.028290423
-0.33126462 0.40286517 0.026727581
-0.2105242 0.40954858 0.025349759
-0.18741596 0.40192604 0.021123687
-0.17686301 0.40451574 0.021124026
-0.16631323 0.40711117 0.021123957
-0.15576249 0.40970504 0.021124024
-0.12923551 0.40540883 0.023995019
-0.10470377 0.40488064 0.025159245
-0.096924394 0.4029088 0.026193108
-0.086429149 0.40532911 0.026193719
-0.075934976 0.40775132 0.026194228
-0.06894058 0.4093703 0.026194384
-0.016432405 0.40726525 0.025215574
-0.0040296316 0.40461791 0.023031287
0.082947135 0.4060159 0.022046559
0.099793583 0.40012527 0.020317689
0.10986337 0.40259755 0.020317946
0.11525312 0.40721869 0.023453467
0.13000119 0.40754724 0.020318117
0.16296613 0.40062985 0.021155855
0.18486345 0.40010118 0.026624601
0.19547114 0.40163231 0.026624952
0.20607936 0.40316069 0.026625406
0.21315172 0.40417826 0.026625771
0.22375798 0.40571535 0.026625838
0.2339873 0.40656677 0.023486551
0.24497336 0.40877438 0.026626686
0.25855827 0.40099186 0.028147779
0.42520162 0.40341431 0.027394969
0.43805063 0.40233469 0.024860119
0.44462821 0.40384877 0.024860663
0.45449308 0.40612972 0.024861002
0.46435857 0.40840495 0.02486161
0.54705751 0.40213713 0.02716928
0.62705106 0.40009713 0.021960493
0.63559008 0.4007237 0.021960815
0.64412922 0.40135622 0.021960786
0.65551478 0.40219998 0.021960726
0.66690004 0.40303767 0.021961035
0.67543894 0.40366423 0.021961352
0.68429148 0.4056738 0.025355522
0.69536334 0.4051379 0.021961436
0.70674872 0.40597868 0.021961559
0.7152878 0.40661156 0.021961503
0.72382647 0.40723813 0.021961831
0.73521191 0.40808165 0.02196179
0.74659681 0.40891945 0.021962084
0.75513649 0.40955842 0.021961682
1.4242413 0.40812266 0.028174674
1.9896132 0.40292299 0.020654647
-0.47275972 0.4176676 0.028290877
-0.33339965 0.4133532 0.02672811
-0.2118541 0.41612765 0.025350558
-0.1478492 0.4116497 0.021124098
-0.13993552 0.41359377 0.021124229
-0.12938473 0.41618729 0.021124292
-0.11883458 0.418782 0.021124288
-0.10388613 0.41859204 0.024126399
-0.058446199 0.41179168 0.026194936
-0.044453919 0.41502035 0.026195662
-0.030463517 0.41825294 0.026196206
-0.019900203 0.41674015 0.025215052
-0.0067323446 0.41785437 0.023031671
0.080666065 0.41719097 0.022046927
0.10688031 0.41942859 0.02658893
0.14006889 0.41002595 0.020317946
0.15013888 0.41249716 0.020318281
0.16049829 0.41312188 0.020737106
0.17027625 0.41744781 0.020318376
0.18034422 0.41992557 0.020318275
0.23153567 0.41604573 0.020347135
0.2540662 0.41364542 0.027640631
0.2626527 0.41132283 0.02662739
0.27326006 0.41285253 0.026627796
0.28386724 0.4143827 0.026628179
0.29447377 0.41591609 0.026628414
0.30508137 0.41744244 0.026628971
0.31215301 0.41845989 0.026629329
0.32275891 0.41999602 0.026629455
0.41940355 0.41445205 0.029929979
0.47422361 0.41068375 0.024862053
0.48408762 0.41296947 0.024862153
0.49395254 0.41524756 0.024862625
0.50381792 0.41751981 0.024863385
0.51368213 0.41980243 0.024863634
0.54439127 0.41245201 0.027169049
0.68175662 0.41805154 0.028749667
0.76367474 0.41018176 0.02196219
0.77505952 0.41101944 0.021962492
0.7864449 0.41186309 0.021962447
0.79498357 0.41249263 0.021962592
0.80352229 0.41312253 0.021962719
0.81490767 0.41396642 0.021962659
0.82629269 0.41480708 0.021962773
0.83482993 0.41542768 0.021963451
0.8433699 0.41606665 0.021963056
0.85475439 0.41690433 0.021963347
0.86613971 0.41774774 0.021963306
0.87467766 0.41837418 0.02196363
0.88321674 0.4190073 0.021963581
0.89460093 0.41984475 0.021963889
1.432447 0.4160949 0.028174156
1.9979174 0.41001737 0.020657027
-0.4742831 0.42512804 0.028291043
-0.33554196 0.42384079 0.026728319
-0.21387005 0.42599517 0.025350751
-0.10703507 0.42464125 0.022625599
-0.09773314 0.42396927 0.021124421
-0.085862935 0.4268856 0.021124588
-0.023368001 0.42621505 0.025214531
-0.019969523 0.4206742 0.026196763
-0.009305194 0.42635816 0.024614649
0.0045149922 0.4263261 0.026197944
0.018505424 0.42955673 0.026198577
0.078949928 0.42557183 0.022046901
0.10319304 0.4294982 0.026588501
0.15862143 0.42191124 0.021156587
0.19041434 0.42239559 0.020318681
0.20048264 0.42487216 0.020318644
0.21055096 0.42734861 0.020318627
0.2250413 0.42801243 0.020333104
0.24805725 0.42964038 0.028147057
0.33336595 0.42152464 0.026629895
0.34397262 0.42305446 0.02663029
0.35457921 0.42458451 0.02663067
0.36165059 0.42560172 0.02663105
0.37225682 0.42713296 0.026631376
0.38286331 0.42866158 0.026631819
0.41518092 0.42596731 0.029929772
0.52354693 0.42207778 0.024864234
0.53341138 0.4243561 0.024864689
0.54249871 0.4247002 0.026017033
0.55313993 0.42891312 0.024865571
0.67985415 0.42538369 0.028749786
0.90598625 0.42068851 0.021963829
0.91452402 0.42131507 0.021964146
0.92306364 0.42195129 0.021963919
1.0068635 0.42955959 0.02983702
1.0149226 0.42813027 0.029837146
1.443381 0.42672914 0.028173788
-0.47656226 0.43631887 0.028291509
-0.33767486 0.43432868 0.02672893
-0.21588588 0.43586266 0.025350945
-0.10768819 0.43722564 0.024127042
-0.07135573 0.43045175 0.021124681
-0.060804665 0.43304431 0.021124816
-0.050254464 0.4356389 0.021124814
-0.039703876 0.43823254 0.021124873
-0.026848912 0.43568102 0.025214758
-0.010926962 0.43844461 0.02303277
-0.0052373335 0.43929607 0.02293493
0.028998762 0.43197811 0.026199125
0.039491624 0.43440008 0.026199639
0.049985141 0.43681991 0.026200252
0.056978673 0.43843925 0.026200371
0.077249765 0.43395355 0.022047807
0.10072708 0.43620628 0.026588606
0.15645194 0.43255198 0.021157123
0.22739041 0.43635595 0.020347945
0.23446468 0.43322462 0.020318951
0.24579182 0.43600941 0.020319
0.25586006 0.43848586 0.020318974
0.39346898 0.4301964 0.026631987
0.40407515 0.43172646 0.02663237
0.41105163 0.43511295 0.028281171
0.42175207 0.43427491 0.026633067
0.43235812 0.43580377 0.026633505
0.44296402 0.43733251 0.026633944
0.45356968 0.43886364 0.026634272
0.46064031 0.43988121 0.02663463
0.53905082 0.43307763 0.027168939
0.56300461 0.4311856 0.024866307
0.5728687 0.43346369 0.024866765
0.58273244 0.43574333 0.024867164
0.59259623 0.4380213 0.024867615
0.67700887 0.43638647 0.028749585
0.95448112 0.43886852 0.029835505
0.96656984 0.43672216 0.029835789
0.97865844 0.43457556 0.02983607
0.99477553 0.43170851 0.029836636
1.4515784 0.43470681 0.028173661
-0.47884166 0.44750971 0.028291989
-0.33981872 0.44481602 0.026729064
-0.21789992 0.44573015 0.025351236
-0.11021972 0.44964802 0.024127631
-0.03031683 0.4451561 0.025214247
-0.025195658 0.441796 0.021125138
-0.013028517 0.44599187 0.022079043
-0.0027770698 0.44731057 0.021125067
0.0077759326 0.44989812 0.021125533
0.011248454 0.44051325 0.022935102
0.02473706 0.44150835 0.022935281
0.041223437 0.44272363 0.022935571
0.054711692 0.44371951 0.022935713
0.067471683 0.44086027 0.02620093
0.074709028 0.4444488 0.023728453
0.085942626 0.44585586 0.024024701
0.097994491 0.44719976 0.026395384
0.1035573 0.44844484 0.024569534
0.11465976 0.44814289 0.022936506
0.13114466 0.44936144 0.022936603
0.15427721 0.44319239 0.021157343
0.2253232 0.44651112 0.020348702
0.24280727 0.44396532 0.028146671
0.26592937 0.44095802 0.020319231
0.27599716 0.44343674 0.020319058
0.28606632 0.44590902 0.020319315
0.29613483 0.4483844 0.020319359
0.40814042 0.44515803 0.029929545
0.47124583 0.44141209 0.026634954
0.48185137 0.44294083 0.026635397
0.49245656 0.44447434 0.026635617
0.50306201 0.44600272 0.02663607
0.51013207 0.44702291 0.026636316
0.52073729 0.44855285 0.026636681
0.53638351 0.44339216 0.027168741
0.60246003 0.44029951 0.024868088
0.61232364 0.44257832 0.024868501
0.62218738 0.44485104 0.024869215
0.6320504 0.44713926 0.024869181
0.64191389 0.44941437 0.024869781
0.67416048 0.44738728 0.028749555
0.90209699 0.44817674 0.029834028
0.91418564 0.44602734 0.029834423
0.92627484 0.44388306 0.029834619
0.93836343 0.44173443 0.029834988
1.4597815 0.44268119 0.028173257
-0.48036444 0.45496997 0.02829216
-0.34124184 0.45180777 0.026729431
-0.21990287 0.45559794 0.02535204
-0.11212564 0.45896447 0.024127686
-0.033789754 0.45462766 0.025214009
-0.01513195 0.45903409 0.023033319
0.01832521 0.45249474 0.0211254
0.028876066 0.45508742 0.021125523
0.036787897 0.4570353 0.021125393
0.044702739 0.4589752 0.021125788
0.072686315 0.45630285 0.022048492
0.093348384 0.45634335 0.026587941
0.11643562 0.45216238 0.026203316
0.12692747 0.45458448 0.026203807
0.13741916 0.45700669 0.026204307
0.14572524 0.45338166 0.024026068
0.15183991 0.45516312 0.021158144
0.16111887 0.45157063 0.022937139
0.17460606 0.45256907 0.022937136
0.19109082 0.45378768 0.022937231
0.20457864 0.45478344 0.022937376
0.22215575 0.45633197 0.021643288
0.23599212 0.45623335 0.024673939
0.25103673 0.45821106 0.022938006
0.26452374 0.45920962 0.022938
0.30620351 0.45085871 0.020319475
0.31627196 0.45333421 0.02031952
0.32634041 0.45580959 0.020319557
0.33640927 0.45828271 0.020319749
0.4053303 0.45283782 0.029929195
0.53297198 0.45017481 0.026902916
0.54194725 0.45161641 0.02663728
0.55608714 0.45365286 0.026637934
0.57022691 0.45569253 0.026638437
0.58083153 0.45722258 0.026638813
0.59143615 0.45874572 0.026639484
0.65177721 0.45169055 0.024870336
0.66164029 0.45397246 0.024870601
0.67188251 0.45548299 0.026810419
0.68136644 0.45852244 0.024871795
0.83762193 0.45963669 0.029832089
0.84971118 0.45748734 0.029832473
0.86583024 0.45462424 0.029832892
0.87791932 0.45247495 0.029833276
0.89000809 0.45032585 0.029833641
1.4679867 0.45065439 0.028172772
-0.48188376 0.46243042 0.028292481
-0.34337974 0.46229514 0.026729815
-0.29001707 0.46898603 0.028167386
-0.24031171 0.46859217 0.022012891
-0.22192013 0.46546513 0.025352163
-0.11402261 0.46828118 0.024128212
-0.037265897 0.46409711 0.025213964
-0.016927838 0.46785817 0.023033896
0.055252761 0.46156979 0.02112578
0.0658032 0.4641633 0.021125844
0.073667124 0.46572149 0.021587439
0.088282079 0.46788034 0.02385685
0.14885199 0.46979344 0.02115858
0.15490571 0.46104145 0.026205231
0.16539595 0.46346784 0.026205532
0.17588785 0.46588755 0.026206119
0.18637899 0.46830988 0.026206618
0.22116971 0.46682048 0.020348959
0.23493016 0.46545166 0.028146176
0.28100932 0.46042287 0.022938391
0.29449669 0.46141928 0.022938501
0.3154768 0.46297002 0.022938628
0.32896444 0.46396458 0.022938844
0.34579208 0.46370545 0.022066044
0.35774127 0.46470475 0.021629535
0.36661446 0.46570897 0.020319868
0.3750025 0.46745065 0.02206625
0.38531274 0.46890414 0.021629844
0.40443382 0.46657479 0.025269546
0.60557544 0.46078968 0.026639808
0.61971456 0.46282637 0.026640443
0.63031876 0.46436262 0.026640536
0.6409229 0.46588969 0.026641035
0.65506172 0.46793276 0.026641401
0.6693083 0.4678449 0.027695756
0.69122922 0.46079791 0.024872364
0.70437968 0.46383333 0.024873061
0.71752971 0.46687448 0.024873478
0.7273922 0.46915019 0.024874037
0.78523344 0.46894258 0.029830735
0.80135316 0.46607876 0.029831165
0.81344271 0.46392977 0.029831538
0.8255322 0.46178108 0.029831903
-0.48416436 0.47362092 0.028292898
-0.34551799 0.47278252 0.026730206
-0.27869454 0.47062254 0.028167635
-0.26737106 0.47225678 0.028167984
-0.25604647 0.47388756 0.028168479
-0.24094778 0.47606397 0.028169045
-0.23200074 0.47063446 0.022012988
-0.22483051 0.47612429 0.025926147
-0.21537942 0.47472 0.022013104
-0.20430011 0.47744668 0.022012988
-0.11591959 0.47759777 0.024128729
-0.039575934 0.47041535 0.025213508
-0.018730521 0.47668216 0.023034086
0.069267392 0.47306481 0.022049205
0.085966468 0.47647849 0.026587449
0.094817549 0.47129333 0.021126162
0.10272974 0.47324049 0.021126099
0.11327973 0.47583485 0.021126091
0.12383103 0.4784255 0.021126352
0.1968706 0.47072959 0.026207207
0.20386347 0.47234869 0.026207333
0.21672796 0.47587192 0.023278773
0.22484559 0.47719085 0.026208408
0.23141697 0.47749984 0.027177319
0.39504164 0.47196504 0.025124334
0.40185404 0.47437072 0.020320164
0.41540116 0.4737218 0.021630175
0.42199096 0.47931945 0.020320388
0.43536359 0.47181886 0.022940058
0.44885075 0.47281265 0.022940315
0.46533501 0.47402716 0.022940628
0.47882199 0.47502124 0.022940855
0.49530551 0.47624475 0.022940684
0.50879258 0.47723579 0.022941085
0.5252763 0.47845465 0.022941163
0.53876311 0.47944748 0.022941476
0.66656649 0.47672454 0.02874933
0.67980403 0.47149706 0.026642498
0.69040769 0.47302628 0.0266429
0.70454586 0.47506654 0.026643377
0.71868402 0.47710633 0.026643872
0.72703552 0.47916293 0.028236531
0.73504907 0.47483987 0.027351899
0.74566132 0.47530386 0.028178068
0.75697893 0.47597957 0.024875604
0.76394737 0.47574681 0.027353132
0.77314377 0.47109199 0.029830351
-0.48644125 0.48481128 0.028293459
-0.37191486 0.48029077 0.027722102
-0.36071026 0.48287702 0.027722608
-0.35323882 0.48459816 0.027723087
-0.34484458 0.48522758 0.027227111
-0.33083153 0.48977268 0.027724003
-0.22594368 0.48519969 0.025352944
-0.21075219 0.4804194 0.028170053
-0.19484191 0.48178634 0.02611818
-0.18273164 0.48349118 0.02509225
-0.17659745 0.48425508 0.022013243
-0.16547768 0.48695812 0.026118977
-0.15239868 0.48941427 0.025092835
-0.11781621 0.48691422 0.024129262
-0.021130204 0.48844728 0.023034563
0.066987157 0.48423922 0.022049623
0.083503485 0.4831886 0.026587404
0.134381 0.48102021 0.021126347
0.14580554 0.48202312 0.021142703
0.15548128 0.48620844 0.021126399
0.16339439 0.48815215 0.021126529
0.21702909 0.48712996 0.020350061
0.2283622 0.48335472 0.028145934
0.2423299 0.48122728 0.02620922
0.25282025 0.48364949 0.026209705
0.26331088 0.48607039 0.026210241
0.2738013 0.4884913 0.026210777
0.39407206 0.48354739 0.029928539
0.43205929 0.48179483 0.020320425
0.44212759 0.48427033 0.02032047
0.45219618 0.48674238 0.020320732
0.46226439 0.48921883 0.020320695
0.55524677 0.48066491 0.022941625
0.56873339 0.48165941 0.022941835
0.58521688 0.48287982 0.02294183
0.5987035 0.48387384 0.022942062
0.61518693 0.48508984 0.022942301
0.62867332 0.4860853 0.022942461
0.64515662 0.48730117 0.022942692
0.65864295 0.4882971 0.022942835
0.66466808 0.4840588 0.028749285
0.6742146 0.48934224 0.025237793
0.68448198 0.48684609 0.029827876
0.69254249 0.48541701 0.02982798
0.70060277 0.48398232 0.029828308
0.71269321 0.48183513 0.029828588
0.73989052 0.48016286 0.026644744
0.7540279 0.48219943 0.02664539
0.76816565 0.48424339 0.026645696
0.77773607 0.4831602 0.025761008
0.78796834 0.4850592 0.025761638
0.79820043 0.4869625 0.025762072
0.8070426 0.48985016 0.026647158
1.3071449 0.48391306 0.02661654
-0.48796403 0.49227142 0.028293645
-0.34978962 0.49375698 0.026731167
-0.32336253 0.49149776 0.027724294
-0.31589258 0.49322069 0.027724689
-0.30468711 0.49580383 0.027725322
-0.29348299 0.49838912 0.02772586
-0.22795367 0.49506685 0.025353413
-0.14612392 0.49174273 0.022013616
-0.1361146 0.49213159 0.026119709
-0.12241921 0.49644288 0.024772124
-0.11565214 0.49923337 0.022013785
-0.10507154 0.49565822 0.028173825
-0.09375003 0.49729359 0.028174112
-0.082426667 0.49892294 0.028174646
-0.022934675 0.49727103 0.023034664
0.064710498 0.49541369 0.022050256
0.079813957 0.49325734 0.02658708
0.14451075 0.49107379 0.021159509
0.17130744 0.49009621 0.02112666
0.18185768 0.49268961 0.021126719
0.19240791 0.49528313 0.021126781
0.2029587 0.49787462 0.021126978
0.21546984 0.49474582 0.020350046
0.22442579 0.49409947 0.028145574
0.28079417 0.49010825 0.026211008
0.29128417 0.49253035 0.02621148
0.3017745 0.49495018 0.026212068
0.31226447 0.49737096 0.026212601
0.32275349 0.49979639 0.026212925
0.38843775 0.49889922 0.029928433
0.39125824 0.49122527 0.029928336
0.47233263 0.49169433 0.020320736
0.48240098 0.49416757 0.020320918
0.49246928 0.49664187 0.020321023
0.50253761 0.49911612 0.020321134
0.61193693 0.49973559 0.029825877
0.62402803 0.49758852 0.029826161
0.63611895 0.49543667 0.02982663
0.64417958 0.49400699 0.029826749
0.65224016 0.49257326 0.02982704
0.66106075 0.49309969 0.029288255
0.68861234 0.49050891 0.022943202
0.70509541 0.49172622 0.022943353
0.71858144 0.49272048 0.022943575
